# .PCD v.7 - Point Cloud Data file format
VERSION .7
FIELDS x y z rgb
SIZE 4 4 4 1
TYPE F F F F
COUNT 1 1 1 1
WIDTH 1903
HEIGHT 1
VIEWPOINT 0 0 0 1 0 0 0
POINTS 1903
DATA ascii
8.151 -3.792 -1.470 0.32
8.172 -3.770 -1.472 0.34
8.195 -3.750 -1.474 0.34
8.199 -3.736 -1.474 0.31
8.221 -3.715 -1.476 0.32
8.247 -3.695 -1.479 0.34
8.254 -3.667 -1.478 0.33
8.267 -3.642 -1.478 0.32
8.289 -3.621 -1.480 0.32
8.300 -3.595 -1.480 0.32
8.321 -3.588 -1.483 0.32
8.344 -3.567 -1.485 0.32
8.341 -3.535 -1.483 0.33
8.363 -3.513 -1.485 0.31
8.389 -3.493 -1.487 0.34
8.400 -3.466 -1.487 0.33
8.407 -3.438 -1.487 0.28
8.436 -3.435 -1.491 0.38
8.452 -3.411 -1.492 0.13
5.199 -2.090 -0.869 0.16
5.185 -2.065 -0.865 0.21
5.203 -2.053 -0.867 0.38
5.200 -2.033 -0.866 0.26
5.232 -2.027 -0.871 0.30
8.528 -3.271 -1.496 0.29
8.548 -3.248 -1.498 0.34
8.569 -3.225 -1.500 0.32
8.575 -3.197 -1.499 0.32
8.593 -3.172 -1.500 0.32
8.616 -3.150 -1.503 0.32
8.606 -3.131 -1.500 0.33
8.628 -3.109 -1.502 0.33
8.640 -3.082 -1.503 0.28
8.607 -3.040 -1.495 0.20
8.395 -2.936 -1.453 0.32
8.384 -2.903 -1.449 0.54
8.389 -2.875 -1.449 0.39
8.407 -2.867 -1.451 0.58
8.634 -2.913 -1.492 0.32
8.746 -2.920 -1.511 0.31
8.753 -2.892 -1.511 0.31
8.779 -2.870 -1.514 0.33
8.779 -2.839 -1.512 0.32
8.791 -2.813 -1.513 0.35
8.811 -2.804 -1.516 0.33
8.805 -2.771 -1.513 0.34
8.826 -2.748 -1.515 0.34
8.848 -2.724 -1.518 0.32
8.843 -2.692 -1.515 0.34
8.863 -2.668 -1.517 0.32
8.877 -2.642 -1.519 0.33
8.874 -2.626 -1.517 0.34
8.899 -2.603 -1.520 0.32
8.920 -2.578 -1.523 0.33
8.928 -2.550 -1.523 0.33
8.929 -2.520 -1.521 0.33
8.952 -2.496 -1.524 0.34
8.960 -2.468 -1.524 0.34
8.962 -2.454 -1.524 0.35
8.281 -2.241 -1.397 0.32
8.343 -2.230 -1.407 0.28
9.005 -2.374 -1.528 0.32
9.017 -2.347 -1.528 0.26
8.904 -2.288 -1.506 0.17
8.258 -2.110 -1.387 0.15
8.167 -2.060 -1.370 0.30
8.118 -2.021 -1.360 0.24
8.071 -1.982 -1.350 0.37
8.048 -1.950 -1.344 0.31
8.135 -1.944 -1.359 0.38
8.057 -1.899 -1.344 0.27
9.100 -2.126 -1.533 0.32
9.125 -2.102 -1.537 0.35
9.128 -2.072 -1.536 0.34
9.154 -2.048 -1.539 0.32
9.166 -2.020 -1.541 0.34
9.182 -1.994 -1.542 0.34
9.193 -1.981 -1.544 0.34
9.195 -1.951 -1.543 0.33
9.203 -1.923 -1.543 0.34
9.228 -1.898 -1.547 0.34
9.240 -1.870 -1.548 0.34
9.254 -1.842 -1.549 0.33
9.271 -1.815 -1.551 0.32
9.272 -1.800 -1.551 0.34
9.283 -1.772 -1.552 0.29
9.312 -1.747 -1.556 0.36
9.321 -1.719 -1.557 0.35
9.325 -1.689 -1.557 0.28
9.355 -1.664 -1.561 0.34
9.395 -1.641 -1.567 0.36
9.408 -1.628 -1.569 0.34
9.428 -1.601 -1.572 0.33
9.420 -1.569 -1.570 0.28
9.460 -1.545 -1.576 0.28
9.530 -1.526 -1.588 0.46
9.547 -1.498 -1.590 0.32
9.552 -1.468 -1.590 0.32
9.548 -1.452 -1.589 0.27
9.553 -1.422 -1.589 0.35
9.575 -1.394 -1.592 0.32
9.579 -1.364 -1.592 0.31
9.581 -1.334 -1.592 0.32
9.585 -1.304 -1.592 0.32
9.587 -1.289 -1.592 0.32
9.589 -1.258 -1.591 0.31
9.597 -1.229 -1.592 0.32
9.621 -1.201 -1.595 0.31
9.613 -1.169 -1.593 0.32
9.626 -1.140 -1.595 0.32
9.641 -1.111 -1.597 0.31
9.631 -1.095 -1.595 0.31
9.656 -1.067 -1.599 0.34
9.656 -1.036 -1.598 0.30
9.665 -1.006 -1.599 0.34
9.658 -0.975 -1.597 0.30
9.669 -0.945 -1.599 0.30
9.681 -0.916 -1.601 0.34
9.675 -0.900 -1.599 0.32
9.678 -0.870 -1.599 0.30
9.681 -0.839 -1.599 0.31
9.681 -0.809 -1.599 0.32
9.686 -0.778 -1.599 0.30
9.696 -0.748 -1.601 0.34
9.704 -0.718 -1.602 0.32
9.695 -0.703 -1.600 0.29
9.698 -0.672 -1.600 0.33
9.704 -0.642 -1.601 0.32
9.700 -0.611 -1.600 0.31
9.698 -0.580 -1.599 0.30
9.709 -0.550 -1.601 0.27
9.712 -0.535 -1.601 0.33
9.710 -0.505 -1.600 0.35
9.711 -0.474 -1.600 0.29
9.705 -0.443 -1.599 0.31
9.704 -0.413 -1.599 0.30
9.707 -0.382 -1.599 0.29
9.710 -0.352 -1.599 0.30
9.705 -0.336 -1.598 0.30
9.700 -0.306 -1.597 0.30
9.703 -0.275 -1.597 0.31
9.696 -0.245 -1.596 0.31
9.691 -0.214 -1.595 0.33
9.688 -0.183 -1.594 0.29
9.694 -0.153 -1.595 0.33
9.690 -0.138 -1.595 0.33
9.693 -0.107 -1.595 0.30
9.687 -0.077 -1.594 0.31
9.687 -0.046 -1.594 0.30
9.668 -0.016 -1.590 0.31
9.306 0.002 -1.595 0.19
9.322 0.031 -1.598 0.24
9.322 0.061 -1.598 0.18
9.319 0.090 -1.598 0.23
9.302 0.104 -1.594 0.19
9.315 0.134 -1.597 0.24
9.301 0.163 -1.594 0.19
9.304 0.192 -1.595 0.24
9.305 0.221 -1.595 0.18
9.299 0.250 -1.594 0.24
9.294 0.280 -1.594 0.18
9.307 0.295 -1.596 0.23
9.293 0.323 -1.594 0.18
9.313 0.353 -1.598 0.25
9.290 0.382 -1.594 0.19
9.305 0.412 -1.597 0.25
9.284 0.440 -1.593 0.19
9.307 0.456 -1.597 0.24
9.299 0.485 -1.596 0.19
9.296 0.514 -1.596 0.25
9.296 0.543 -1.596 0.18
9.300 0.572 -1.597 0.23
9.295 0.601 -1.597 0.18
9.306 0.632 -1.599 0.24
9.294 0.645 -1.597 0.19
9.292 0.675 -1.597 0.24
9.297 0.704 -1.598 0.20
9.299 0.734 -1.599 0.11
9.279 0.762 -1.596 0.19
9.296 0.792 -1.599 0.11
9.274 0.820 -1.596 0.19
9.288 0.836 -1.599 0.11
9.297 0.866 -1.601 0.18
9.302 0.896 -1.602 0.23
9.274 0.923 -1.598 0.18
9.295 0.954 -1.602 0.23
9.276 0.982 -1.599 0.19
9.279 1.012 -1.600 0.12
9.277 1.026 -1.600 0.20
9.272 1.055 -1.600 0.11
9.251 1.082 -1.597 0.20
9.273 1.114 -1.601 0.11
9.252 1.141 -1.598 0.20
9.262 1.172 -1.601 0.11
9.256 1.201 -1.600 0.19
9.256 1.216 -1.601 0.11
9.239 1.243 -1.598 0.18
9.250 1.274 -1.601 0.11
9.233 1.301 -1.598 0.19
9.240 1.332 -1.601 0.11
9.220 1.359 -1.598 0.18
9.226 1.374 -1.599 0.11
9.227 1.404 -1.600 0.18
9.237 1.435 -1.603 0.23
9.226 1.463 -1.602 0.19
9.212 1.491 -1.600 0.12
9.215 1.521 -1.601 0.18
9.198 1.548 -1.599 0.22
9.182 1.560 -1.597 0.18
9.187 1.591 -1.598 0.23
9.157 1.615 -1.594 0.18
9.169 1.647 -1.597 0.23
9.176 1.678 -1.599 0.19
9.155 1.704 -1.596 0.23
9.144 1.731 -1.595 0.18
9.158 1.749 -1.598 0.23
9.137 1.775 -1.595 0.18
9.134 1.804 -1.596 0.25
9.126 1.832 -1.595 0.19
9.116 1.860 -1.595 0.24
9.099 1.886 -1.593 0.19
9.122 1.921 -1.598 0.24
9.096 1.930 -1.594 0.19
9.105 1.962 -1.597 0.24
9.085 1.988 -1.594 0.19
9.087 2.018 -1.595 0.24
9.071 2.045 -1.594 0.18
9.091 2.079 -1.599 0.23
9.059 2.087 -1.593 0.17
9.058 2.117 -1.594 0.23
9.059 2.147 -1.596 0.19
9.047 2.174 -1.595 0.24
9.030 2.200 -1.593 0.19
9.048 2.235 -1.598 0.23
9.018 2.257 -1.593 0.19
9.024 2.274 -1.595 0.12
9.034 2.306 -1.598 0.18
9.019 2.333 -1.597 0.11
9.014 2.362 -1.597 0.18
9.020 2.394 -1.600 0.23
8.997 2.418 -1.597 0.19
9.006 2.435 -1.599 0.23
8.997 2.463 -1.599 0.17
8.995 2.493 -1.600 0.24
8.979 2.519 -1.599 0.18
9.001 2.556 -1.605 0.24
8.980 2.580 -1.602 0.19
8.976 2.610 -1.603 0.12
8.972 2.624 -1.603 0.20
8.960 2.651 -1.602 0.11
8.947 2.678 -1.601 0.20
8.960 2.712 -1.605 0.11
8.936 2.736 -1.602 0.20
8.935 2.766 -1.604 0.11
8.919 2.792 -1.602 0.20
8.926 2.809 -1.605 0.11
8.909 2.835 -1.603 0.18
8.913 2.867 -1.606 0.22
8.887 2.890 -1.602 0.19
8.884 2.919 -1.603 0.21
8.886 2.951 -1.606 0.19
8.865 2.975 -1.603 0.23
8.866 2.991 -1.605 0.20
8.862 3.021 -1.606 0.23
8.844 3.045 -1.604 0.20
8.838 3.074 -1.605 0.23
8.837 3.105 -1.606 0.19
8.815 3.129 -1.604 0.23
8.795 3.153 -1.602 0.20
8.805 3.172 -1.605 0.22
8.780 3.194 -1.602 0.18
8.785 3.227 -1.605 0.23
8.771 3.254 -1.604 0.18
8.750 3.277 -1.602 0.24
8.730 3.301 -1.600 0.18
8.747 3.323 -1.605 0.23
8.718 3.344 -1.601 0.18
8.726 3.378 -1.605 0.24
8.710 3.403 -1.603 0.18
8.705 3.433 -1.605 0.25
8.683 3.456 -1.602 0.18
8.676 3.484 -1.603 0.24
8.663 3.495 -1.602 0.19
8.667 3.528 -1.605 0.25
8.634 3.547 -1.600 0.23
8.633 3.578 -1.602 0.20
8.633 3.610 -1.605 0.25
8.605 3.630 -1.601 0.23
8.583 3.652 -1.599 0.18
8.597 3.674 -1.603 0.26
8.562 3.691 -1.598 0.23
8.550 3.718 -1.598 0.19
8.558 3.754 -1.602 0.27
8.545 3.780 -1.602 0.23
8.529 3.805 -1.601 0.18
8.528 3.837 -1.603 0.28
8.504 3.842 -1.600 0.24
8.497 3.871 -1.601 0.19
8.505 3.907 -1.605 0.27
8.485 3.930 -1.603 0.24
8.455 3.948 -1.600 0.27
8.414 3.962 -1.594 0.26
8.399 3.971 -1.592 0.26
8.383 3.995 -1.591 0.20
8.376 4.024 -1.593 0.28
8.349 4.044 -1.590 0.24
8.363 4.083 -1.595 0.25
8.334 4.101 -1.592 0.18
8.325 4.129 -1.593 0.29
8.311 4.139 -1.591 0.25
8.294 4.163 -1.590 0.27
8.278 4.187 -1.590 0.26
8.258 4.210 -1.588 0.26
8.246 4.237 -1.589 0.27
8.243 4.268 -1.591 0.28
8.224 4.291 -1.590 0.27
8.221 4.306 -1.590 0.25
8.185 4.320 -1.586 0.23
8.166 4.343 -1.585 0.32
8.135 4.359 -1.581 0.34
8.109 4.378 -1.578 0.30
8.092 4.402 -1.578 0.29
8.104 4.425 -1.582 0.34
8.114 4.463 -1.587 0.34
8.107 4.493 -1.588 0.31
8.098 4.521 -1.589 0.25
8.068 4.538 -1.586 0.18
8.075 4.575 -1.590 0.29
8.048 4.593 -1.588 0.25
8.043 4.607 -1.588 0.26
8.032 4.634 -1.589 0.28
8.027 4.665 -1.591 0.25
8.001 4.683 -1.589 0.19
7.993 4.712 -1.590 0.29
7.971 4.734 -1.589 0.25
7.944 4.752 -1.586 0.20
7.945 4.769 -1.588 0.28
7.932 4.795 -1.588 0.25
7.922 4.823 -1.589 0.20
7.912 4.851 -1.590 0.28
7.890 4.872 -1.589 0.24
7.866 4.891 -1.587 0.19
7.861 4.922 -1.589 0.27
7.846 4.930 -1.588 0.24
7.852 4.969 -1.593 0.19
7.832 4.990 -1.591 0.27
7.808 5.009 -1.590 0.24
7.792 5.034 -1.590 0.18
7.789 5.067 -1.593 0.27
7.750 5.076 -1.587 0.25
7.757 5.098 -1.591 0.19
7.743 5.124 -1.591 0.27
7.715 5.140 -1.589 0.24
7.707 5.170 -1.590 0.19
7.697 5.198 -1.592 0.26
7.668 5.214 -1.589 0.23
7.657 5.241 -1.590 0.18
7.650 5.254 -1.590 0.26
7.619 5.268 -1.587 0.23
7.620 5.304 -1.591 0.21
7.598 5.325 -1.590 0.25
7.567 5.339 -1.587 0.20
7.568 5.375 -1.591 0.25
7.542 5.374 -1.587 0.19
7.535 5.405 -1.589 0.25
7.511 5.424 -1.587 0.22
7.480 5.437 -1.584 0.20
7.477 5.471 -1.587 0.25
7.466 5.499 -1.589 0.22
7.433 5.511 -1.585 0.18
7.435 5.531 -1.588 0.26
7.408 5.547 -1.586 0.23
7.385 5.566 -1.584 0.19
7.386 5.603 -1.589 0.26
7.357 5.618 -1.586 0.23
7.329 5.632 -1.583 0.19
7.331 5.671 -1.588 0.26
7.310 5.673 -1.585 0.23
7.292 5.696 -1.585 0.18
7.279 5.722 -1.586 0.26
7.253 5.739 -1.585 0.23
7.221 5.751 -1.581 0.19
7.226 5.792 -1.587 0.27
7.205 5.794 -1.584 0.24
7.173 5.805 -1.581 0.19
7.165 5.836 -1.583 0.26
7.148 5.860 -1.583 0.23
7.118 5.872 -1.581 0.19
7.107 5.901 -1.582 0.06
7.094 5.928 -1.584 0.14
5.181 4.353 -1.126 0.14
5.163 4.365 -1.125 0.38
5.165 4.394 -1.128 0.00
5.146 4.407 -1.127 0.13
6.974 5.997 -1.575 0.18
6.977 6.038 -1.581 0.27
6.942 6.046 -1.577 0.25
6.941 6.065 -1.579 0.20
6.925 6.089 -1.579 0.28
6.899 6.104 -1.578 0.25
6.872 6.120 -1.576 0.19
6.872 6.158 -1.581 0.27
6.836 6.165 -1.577 0.23
6.817 6.187 -1.577 0.19
6.826 6.214 -1.581 0.27
6.798 6.228 -1.579 0.25
6.774 6.245 -1.578 0.20
6.763 6.275 -1.580 0.27
6.723 6.277 -1.575 0.23
6.701 6.295 -1.574 0.19
6.702 6.337 -1.580 0.27
6.682 6.338 -1.577 0.23
6.667 6.363 -1.578 0.19
6.659 6.396 -1.582 0.27
6.629 6.407 -1.579 0.23
6.606 6.425 -1.578 0.19
6.602 6.461 -1.582 0.27
6.573 6.474 -1.580 0.23
6.551 6.473 -1.577 0.18
6.552 6.514 -1.583 0.26
6.515 6.518 -1.578 0.23
6.503 6.547 -1.581 0.19
6.492 6.577 -1.583 0.27
6.457 6.583 -1.579 0.24
6.430 6.597 -1.578 0.19
6.439 6.626 -1.583 0.27
6.404 6.632 -1.579 0.25
6.378 6.647 -1.578 0.19
6.372 6.683 -1.582 0.27
6.344 6.695 -1.580 0.25
6.326 6.718 -1.581 0.20
6.322 6.735 -1.582 0.27
6.292 6.746 -1.580 0.24
6.270 6.765 -1.580 0.20
6.255 6.792 -1.582 0.27
6.231 6.808 -1.581 0.25
6.210 6.828 -1.581 0.20
6.194 6.853 -1.582 0.27
6.176 6.856 -1.581 0.24
6.160 6.881 -1.582 0.20
6.145 6.907 -1.584 0.28
6.110 6.912 -1.580 0.24
6.094 6.937 -1.582 0.26
6.068 6.952 -1.581 0.20
6.055 6.981 -1.583 0.28
6.035 6.980 -1.581 0.25
6.016 7.002 -1.581 0.19
5.999 7.027 -1.583 0.27
5.966 7.034 -1.580 0.24
5.951 7.060 -1.582 0.19
5.934 7.085 -1.583 0.27
5.896 7.085 -1.579 0.23
5.892 7.104 -1.581 0.19
5.874 7.127 -1.582 0.27
5.843 7.134 -1.579 0.24
5.829 7.163 -1.582 0.19
5.814 7.191 -1.584 0.27
5.779 7.194 -1.581 0.25
5.753 7.207 -1.579 0.19
5.754 7.232 -1.583 0.28
5.722 7.239 -1.581 0.25
5.693 7.249 -1.579 0.19
5.688 7.289 -1.584 0.28
5.653 7.291 -1.580 0.25
5.631 7.310 -1.581 0.19
5.619 7.342 -1.584 0.27
5.602 7.344 -1.582 0.24
5.577 7.359 -1.582 0.20
5.563 7.389 -1.585 0.28
5.529 7.392 -1.581 0.25
5.510 7.414 -1.582 0.20
5.498 7.447 -1.586 0.27
5.466 7.454 -1.583 0.25
5.444 7.448 -1.580 0.20
5.435 7.484 -1.585 0.28
5.405 7.493 -1.583 0.25
5.386 7.516 -1.584 0.25
5.358 7.527 -1.583 0.26
5.336 7.545 -1.583 0.26
5.313 7.564 -1.583 0.26
5.302 7.574 -1.584 0.25
5.277 7.589 -1.583 0.26
5.254 7.605 -1.583 0.26
5.228 7.620 -1.583 0.26
5.200 7.630 -1.582 0.27
5.180 7.653 -1.583 0.26
5.165 7.682 -1.586 0.25
5.142 7.674 -1.582 0.18
5.130 7.708 -1.586 0.28
5.096 7.709 -1.583 0.25
5.076 7.732 -1.585 0.26
5.054 7.751 -1.585 0.25
5.027 7.763 -1.585 0.27
5.017 7.775 -1.585 0.27
4.993 7.790 -1.585 0.27
4.971 7.809 -1.586 0.27
4.948 7.828 -1.587 0.28
4.924 7.844 -1.587 0.27
4.899 7.859 -1.587 0.27
4.874 7.874 -1.587 0.27
4.863 7.884 -1.587 0.27
4.842 7.906 -1.589 0.27
4.815 7.918 -1.588 0.26
4.789 7.931 -1.587 0.26
4.766 7.949 -1.588 0.26
4.741 7.964 -1.588 0.25
4.720 7.986 -1.590 0.26
4.707 7.992 -1.589 0.26
4.684 8.010 -1.590 0.27
4.656 8.019 -1.589 0.27
4.633 8.039 -1.590 0.28
4.608 8.053 -1.590 0.27
4.581 8.065 -1.589 0.28
4.555 8.079 -1.589 0.27
4.546 8.091 -1.590 0.27
4.524 8.112 -1.592 0.27
4.497 8.123 -1.591 0.28
4.468 8.132 -1.590 0.27
4.444 8.149 -1.591 0.27
4.423 8.170 -1.592 0.27
4.398 8.186 -1.593 0.26
4.388 8.198 -1.594 0.27
4.359 8.206 -1.593 0.27
4.332 8.217 -1.592 0.27
4.316 8.249 -1.596 0.28
4.284 8.252 -1.594 0.28
4.260 8.269 -1.594 0.27
4.241 8.295 -1.597 0.28
4.224 8.294 -1.595 0.27
4.199 8.309 -1.596 0.27
4.183 8.344 -1.600 0.26
4.151 8.344 -1.598 0.27
4.128 8.365 -1.599 0.27
4.106 8.386 -1.601 0.27
4.076 8.390 -1.599 0.27
4.067 8.406 -1.601 0.26
4.046 8.431 -1.603 0.27
4.012 8.427 -1.600 0.27
3.986 8.442 -1.601 0.26
3.969 8.474 -1.605 0.26
3.938 8.477 -1.603 0.25
3.912 8.490 -1.603 0.26
3.902 8.505 -1.605 0.27
3.875 8.515 -1.604 0.28
3.849 8.529 -1.605 0.27
3.828 8.554 -1.607 0.28
3.796 8.555 -1.605 0.28
3.776 8.583 -1.608 0.28
3.753 8.604 -1.610 0.27
3.734 8.597 -1.607 0.27
3.708 8.610 -1.608 0.27
3.689 8.642 -1.612 0.27
3.655 8.635 -1.608 0.28
3.629 8.650 -1.609 0.27
3.610 8.682 -1.613 0.27
3.575 8.675 -1.609 0.27
3.562 8.682 -1.610 0.27
3.543 8.712 -1.613 0.27
3.511 8.712 -1.611 0.27
3.484 8.725 -1.611 0.27
3.461 8.747 -1.614 0.27
3.425 8.735 -1.609 0.28
3.417 8.755 -1.612 0.27
3.396 8.783 -1.615 0.27
3.362 8.777 -1.612 0.27
3.338 8.796 -1.614 0.27
3.314 8.818 -1.616 0.27
3.289 8.834 -1.617 0.25
3.253 8.824 -1.613 0.18
3.241 8.875 -1.621 0.29
3.215 8.848 -1.615 0.25
3.194 8.877 -1.619 0.23
3.161 8.872 -1.616 0.17
3.140 8.900 -1.619 0.29
3.105 8.892 -1.616 0.25
3.082 8.914 -1.618 0.27
3.070 8.925 -1.619 0.27
3.040 8.929 -1.618 0.27
3.013 8.942 -1.619 0.26
2.984 8.950 -1.619 0.26
2.953 8.951 -1.617 0.27
2.931 8.978 -1.621 0.26
2.901 8.981 -1.619 0.26
2.888 8.989 -1.620 0.26
2.863 9.008 -1.622 0.26
2.830 9.004 -1.619 0.26
2.805 9.022 -1.621 0.27
2.780 9.042 -1.623 0.26
2.749 9.041 -1.622 0.26
2.722 9.055 -1.623 0.27
2.708 9.060 -1.623 0.27
2.679 9.068 -1.623 0.25
2.651 9.076 -1.623 0.25
2.627 9.100 -1.626 0.27
2.597 9.104 -1.625 0.27
2.568 9.110 -1.625 0.27
2.543 9.132 -1.627 0.27
2.530 9.141 -1.628 0.27
2.500 9.146 -1.627 0.27
2.472 9.153 -1.627 0.28
2.443 9.161 -1.627 0.27
2.418 9.184 -1.630 0.27
2.390 9.193 -1.631 0.26
2.360 9.197 -1.630 0.26
2.346 9.205 -1.631 0.27
2.321 9.225 -1.633 0.27
2.290 9.227 -1.632 0.26
2.262 9.236 -1.633 0.26
2.235 9.250 -1.634 0.27
2.207 9.263 -1.635 0.27
2.179 9.276 -1.636 0.28
2.166 9.285 -1.637 0.27
2.135 9.284 -1.636 0.27
2.107 9.295 -1.637 0.27
2.078 9.305 -1.637 0.27
2.049 9.310 -1.637 0.27
2.021 9.322 -1.638 0.27
1.990 9.320 -1.637 0.27
1.979 9.341 -1.640 0.27
1.950 9.349 -1.640 0.26
1.924 9.372 -1.643 0.26
1.894 9.374 -1.643 0.26
1.866 9.386 -1.644 0.24
1.834 9.382 -1.642 0.18
1.810 9.413 -1.647 0.29
1.791 9.397 -1.643 0.25
1.765 9.420 -1.646 0.26
1.737 9.433 -1.648 0.24
1.705 9.425 -1.645 0.18
1.680 9.457 -1.650 0.29
1.646 9.441 -1.646 0.25
1.618 9.456 -1.648 0.26
1.604 9.462 -1.649 0.25
1.576 9.477 -1.651 0.24
1.543 9.460 -1.647 0.18
1.519 9.504 -1.654 0.29
1.487 9.493 -1.651 0.25
1.457 9.494 -1.650 0.17
1.431 9.528 -1.656 0.29
1.413 9.510 -1.652 0.25
1.383 9.511 -1.651 0.20
1.357 9.546 -1.657 0.28
1.324 9.527 -1.653 0.25
1.296 9.541 -1.655 0.27
1.267 9.553 -1.656 0.25
1.250 9.545 -1.654 0.26
1.223 9.569 -1.658 0.24
1.191 9.561 -1.656 0.17
1.164 9.588 -1.660 0.28
1.131 9.568 -1.656 0.25
1.101 9.571 -1.656 0.19
1.074 9.602 -1.661 0.26
1.043 9.600 -1.660 0.23
1.028 9.599 -1.659 0.19
1.000 9.624 -1.663 0.27
0.968 9.610 -1.660 0.25
0.938 9.611 -1.660 0.18
0.910 9.641 -1.665 0.27
0.879 9.636 -1.663 0.23
0.849 9.642 -1.664 0.19
0.836 9.663 -1.668 0.27
0.804 9.644 -1.664 0.24
0.775 9.668 -1.668 0.19
0.746 9.685 -1.670 0.27
0.714 9.673 -1.668 0.23
0.685 9.685 -1.670 0.19
0.671 9.704 -1.673 0.28
0.639 9.684 -1.669 0.24
0.610 9.706 -1.673 0.18
0.580 9.720 -1.675 0.26
0.548 9.702 -1.671 0.24
0.519 9.723 -1.675 0.19
0.489 9.738 -1.677 0.27
0.473 9.719 -1.674 0.24
0.442 9.727 -1.675 0.19
0.413 9.748 -1.678 0.27
0.381 9.729 -1.675 0.23
0.351 9.742 -1.677 0.18
0.321 9.747 -1.678 0.27
0.290 9.736 -1.675 0.23
0.275 9.747 -1.677 0.18
0.244 9.755 -1.679 0.26
0.213 9.740 -1.676 0.22
0.183 9.749 -1.677 0.18
0.153 9.765 -1.680 0.26
0.122 9.748 -1.677 0.23
0.091 9.752 -1.678 0.19
0.076 9.762 -1.679 0.26
0.045 9.754 -1.678 0.23
0.015 9.776 -1.682 0.18
-0.016 9.780 -1.683 0.26
-0.047 9.768 -1.681 0.23
-0.078 9.786 -1.684 0.18
-0.109 9.803 -1.687 0.26
-0.124 9.791 -1.685 0.22
-0.155 9.810 -1.689 0.18
-0.186 9.816 -1.690 0.26
-0.216 9.797 -1.686 0.24
-0.248 9.820 -1.691 0.21
-0.278 9.821 -1.691 0.13
-0.306 9.708 -1.670 0.18
-0.310 9.346 -1.603 0.05
-0.338 9.306 -1.596 0.00
-0.376 9.543 -1.640 0.12
-0.418 9.838 -1.695 0.17
-0.449 9.847 -1.697 0.27
-0.480 9.843 -1.697 0.23
-0.512 9.863 -1.701 0.18
-0.528 9.860 -1.700 0.26
-0.558 9.853 -1.699 0.20
-0.591 9.878 -1.704 0.13
-0.608 9.639 -1.660 0.18
-0.615 9.272 -1.593 0.27
-0.644 9.274 -1.593 0.29
-0.673 9.268 -1.593 0.32
-0.688 9.277 -1.594 0.30
-0.719 9.292 -1.598 0.26
-0.767 9.535 -1.643 0.23
-0.822 9.850 -1.702 0.22
-0.856 9.875 -1.707 0.18
-0.815 8.737 -1.497 0.75
-0.830 8.742 -1.498 0.66
-0.857 8.733 -1.497 0.75
-0.882 8.707 -1.493 0.38
-0.921 8.818 -1.514 0.31
-1.039 9.685 -1.675 0.17
-1.088 9.852 -1.707 0.25
-1.121 9.862 -1.710 0.23
-1.135 9.851 -1.708 0.18
-1.169 9.872 -1.713 0.27
-1.200 9.873 -1.713 0.23
-1.231 9.865 -1.713 0.18
-1.149 8.959 -1.545 0.28
-1.179 8.971 -1.548 0.38
-1.205 8.950 -1.544 0.38
-1.223 8.977 -1.550 0.26
-1.255 9.005 -1.556 0.50
-1.288 9.030 -1.561 0.39
-1.433 9.845 -1.714 0.18
-1.472 9.895 -1.724 0.26
-1.498 9.854 -1.717 0.22
-1.532 9.872 -1.722 0.18
-1.553 9.907 -1.729 0.26
-1.580 9.873 -1.723 0.23
-1.612 9.876 -1.725 0.18
-1.648 9.901 -1.730 0.27
-1.677 9.885 -1.728 0.20
-1.710 9.887 -1.730 0.25
-1.739 9.872 -1.728 0.19
-1.757 9.885 -1.731 0.25
-1.786 9.866 -1.728 0.18
-1.823 9.891 -1.734 0.25
-1.849 9.858 -1.729 0.18
-1.884 9.877 -1.734 0.24
-1.915 9.867 -1.733 0.22
-1.929 9.861 -1.732 0.20
-1.966 9.883 -1.738 0.25
-1.996 9.873 -1.737 0.19
-2.030 9.881 -1.739 0.25
-2.059 9.864 -1.738 0.19
-2.096 9.889 -1.743 0.25
-2.123 9.863 -1.740 0.19
-2.142 9.875 -1.743 0.25
-2.172 9.860 -1.741 0.19
-2.205 9.865 -1.743 0.25
-2.235 9.854 -1.743 0.19
-2.271 9.870 -1.747 0.25
-2.299 9.850 -1.745 0.20
-2.335 9.861 -1.748 0.25
-2.352 9.865 -1.750 0.19
-2.381 9.850 -1.748 0.25
-2.405 9.812 -1.742 0.18
-2.446 9.847 -1.750 0.25
-2.472 9.822 -1.747 0.18
-2.509 9.837 -1.751 0.24
-2.541 9.835 -1.753 0.18
-2.554 9.819 -1.750 0.24
-2.585 9.811 -1.750 0.19
-2.622 9.826 -1.755 0.24
-2.649 9.804 -1.752 0.18
-2.684 9.813 -1.755 0.25
-2.716 9.806 -1.756 0.21
-2.747 9.802 -1.757 0.12
-2.764 9.803 -1.758 0.18
-2.798 9.806 -1.760 0.12
-2.828 9.791 -1.759 0.18
-2.859 9.786 -1.759 0.12
-2.892 9.784 -1.761 0.18
-2.921 9.770 -1.760 0.12
-2.951 9.757 -1.759 0.20
-2.972 9.771 -1.763 0.11
-2.994 9.731 -1.757 0.19
-3.033 9.750 -1.762 0.11
-3.062 9.737 -1.762 0.20
-3.096 9.736 -1.763 0.11
-3.121 9.710 -1.760 0.20
-3.156 9.713 -1.763 0.11
-3.162 9.682 -1.758 0.20
-3.204 9.706 -1.764 0.11
-3.235 9.697 -1.765 0.19
-3.267 9.691 -1.765 0.11
-3.291 9.662 -1.762 0.19
-3.331 9.679 -1.767 0.11
-3.355 9.650 -1.763 0.20
-3.375 9.660 -1.766 0.11
-3.403 9.644 -1.765 0.20
-3.438 9.646 -1.768 0.11
-3.460 9.611 -1.763 0.20
-3.502 9.633 -1.770 0.11
-3.526 9.604 -1.766 0.20
-3.562 9.611 -1.770 0.11
-3.571 9.589 -1.766 0.19
-3.605 9.587 -1.768 0.11
-3.632 9.568 -1.767 0.20
-3.669 9.575 -1.770 0.11
-3.690 9.538 -1.765 0.20
-3.730 9.554 -1.771 0.11
-3.762 9.547 -1.772 0.18
-3.769 9.519 -1.767 0.12
-3.799 9.508 -1.767 0.20
-3.836 9.514 -1.771 0.11
-3.860 9.489 -1.769 0.20
-3.898 9.497 -1.772 0.11
-3.921 9.468 -1.769 0.20
-3.959 9.476 -1.773 0.05
-1.098 2.567 -0.391 0.17
-1.110 2.573 -0.393 0.24
-1.118 2.570 -0.393 0.28
-1.118 2.546 -0.389 0.28
-1.129 2.552 -0.391 0.32
-1.134 2.541 -0.390 0.31
-1.134 2.519 -0.386 0.25
-1.142 2.527 -0.388 0.30
-1.146 2.514 -0.386 0.32
-1.149 2.498 -0.383 0.32
-1.156 2.494 -0.383 0.32
-1.160 2.482 -0.382 0.32
-1.161 2.462 -0.378 0.27
-1.172 2.465 -0.380 0.29
-1.170 2.453 -0.378 0.31
-1.175 2.442 -0.376 0.31
-1.178 2.429 -0.374 0.25
-1.188 2.429 -0.375 0.31
-1.194 2.422 -0.374 0.30
-1.207 2.431 -0.377 0.32
-1.211 2.420 -0.375 0.35
-1.212 2.412 -0.374 0.37
-1.221 2.410 -0.375 0.37
-1.226 2.401 -0.374 0.33
-1.240 2.410 -0.376 0.33
-1.246 2.404 -0.376 0.43
-1.253 2.398 -0.375 0.40
-1.265 2.403 -0.377 0.38
-1.270 2.403 -0.378 0.38
-1.273 2.390 -0.376 0.37
-1.287 2.398 -0.378 0.39
-1.305 2.415 -0.383 0.36
-1.313 2.411 -0.383 0.40
-1.309 2.386 -0.378 0.50
-1.332 2.411 -0.384 0.25
-1.327 2.392 -0.381 0.45
-1.324 2.369 -0.377 0.49
-3.382 6.000 -1.148 0.00
-1.258 2.232 -0.349 0.00
-1.340 2.362 -0.377 0.00
-3.405 5.998 -1.150 0.00
-3.420 5.980 -1.148 0.00
-3.438 5.988 -1.151 0.00
-3.462 5.901 -1.140 0.40
-3.477 5.883 -1.138 0.28
-3.476 5.840 -1.131 0.42
-3.490 5.843 -1.133 0.35
-3.506 5.827 -1.132 0.45
-3.524 5.816 -1.132 0.34
-3.539 5.800 -1.131 0.54
-3.668 5.970 -1.170 0.00
-3.644 5.888 -1.155 0.00
-4.029 6.448 -1.280 0.20
-4.285 6.765 -1.355 0.71
-4.356 6.830 -1.372 0.19
-5.602 8.738 -1.794 0.20
-5.642 8.739 -1.798 0.11
-5.668 8.719 -1.797 0.20
-5.685 8.715 -1.798 0.11
-5.711 8.696 -1.798 0.20
-5.751 8.698 -1.802 0.11
-5.771 8.668 -1.800 0.18
-5.799 8.651 -1.800 0.22
-5.834 8.645 -1.803 0.19
-5.861 8.626 -1.803 0.05
-4.693 6.828 -1.406 0.28
-4.693 6.782 -1.400 0.19
-4.719 6.774 -1.401 0.24
-4.754 6.779 -1.405 0.19
-4.774 6.762 -1.405 0.05
-6.044 8.516 -1.805 0.07
-6.081 8.511 -1.808 0.19
-6.103 8.513 -1.811 0.11
-6.118 8.478 -1.807 0.18
-3.899 5.316 -1.094 0.27
-3.865 5.235 -1.078 0.99
-3.798 5.109 -1.052 0.99
-3.781 5.070 -1.044 0.99
-3.793 5.052 -1.043 0.99
-3.812 5.044 -1.044 0.99
-3.926 5.163 -1.074 0.99
-4.021 5.254 -1.098 0.68
-4.035 5.238 -1.097 0.33
-4.316 5.570 -1.178 0.15
-4.411 5.675 -1.204 0.54
-4.385 5.604 -1.190 0.06
-4.241 5.384 -1.142 0.12
-4.348 5.450 -1.164 0.23
-4.360 5.430 -1.162 0.43
-4.375 5.413 -1.162 0.36
-4.393 5.418 -1.164 0.43
-4.402 5.394 -1.162 0.41
-4.422 5.384 -1.163 0.53
-4.573 5.533 -1.202 0.16
-5.036 6.059 -1.331 0.39
-5.190 6.206 -1.371 0.19
-6.786 8.074 -1.824 0.09
-5.125 6.069 -1.343 0.08
-5.152 6.062 -1.345 0.04
-6.822 7.989 -1.817 0.12
-6.868 7.992 -1.823 0.11
-6.883 7.958 -1.820 0.21
-6.916 7.947 -1.822 0.20
-6.943 7.927 -1.823 0.25
-6.956 7.917 -1.823 0.18
-6.988 7.903 -1.825 0.23
-7.005 7.872 -1.823 0.23
-7.040 7.862 -1.826 0.19
-7.084 7.861 -1.831 0.27
-7.106 7.836 -1.830 0.21
-7.131 7.814 -1.830 0.27
-7.144 7.804 -1.831 0.27
-7.156 7.767 -1.827 0.29
-7.163 7.726 -1.822 0.35
-7.182 7.698 -1.821 0.34
-7.192 7.661 -1.817 0.32
-7.210 7.631 -1.815 0.33
-7.227 7.601 -1.814 0.34
-7.202 7.551 -1.804 0.36
-7.239 7.543 -1.807 0.30
-7.270 7.527 -1.809 0.30
-7.268 7.477 -1.802 0.39
-7.292 7.456 -1.803 0.29
-7.301 7.417 -1.799 0.38
-7.283 7.376 -1.791 0.28
-7.326 7.373 -1.796 0.36
-7.378 7.379 -1.804 0.30
-7.394 7.349 -1.802 0.38
-7.403 7.312 -1.798 0.30
-7.446 7.308 -1.803 0.31
-7.404 7.221 -1.787 0.32
-7.354 7.127 -1.768 0.31
-7.407 7.156 -1.779 0.36
-7.398 7.103 -1.771 0.35
-7.462 7.119 -1.781 0.32
-7.301 6.921 -1.734 0.31
-7.439 7.008 -1.764 0.28
-7.513 7.034 -1.777 0.28
-7.553 7.049 -1.784 0.36
-7.519 6.973 -1.770 0.25
-7.558 6.965 -1.775 0.43
-7.567 6.929 -1.771 0.14
-7.320 6.660 -1.704 0.20
-7.422 6.711 -1.725 0.16
-7.486 6.726 -1.735 0.30
-7.543 6.756 -1.747 0.38
-7.514 6.688 -1.734 0.32
-7.529 6.659 -1.733 0.28
-7.639 6.713 -1.755 0.32
-7.663 6.692 -1.755 0.36
-7.654 6.642 -1.748 0.38
-7.828 6.751 -1.786 0.31
-7.879 6.773 -1.795 0.33
-7.909 6.756 -1.798 0.32
-7.999 6.790 -1.814 0.23
-8.005 6.752 -1.811 0.42
-7.927 6.643 -1.787 0.31
-7.904 6.581 -1.776 0.32
-8.029 6.643 -1.801 0.32
-8.109 6.689 -1.818 0.30
-8.164 6.691 -1.826 0.34
-8.150 6.636 -1.818 0.34
-8.177 6.615 -1.819 0.34
-8.239 6.623 -1.829 0.36
-8.221 6.566 -1.820 0.29
-8.280 6.571 -1.829 0.30
-8.315 6.578 -1.835 0.28
-8.278 6.507 -1.821 0.33
-8.302 6.483 -1.822 0.38
-8.285 6.428 -1.813 0.30
-8.240 6.351 -1.798 0.35
-8.261 6.326 -1.798 0.36
-8.317 6.328 -1.807 0.35
-8.415 6.382 -1.827 0.32
-8.430 6.352 -1.826 0.33
-8.492 6.357 -1.836 0.33
-8.547 6.356 -1.844 0.36
-8.583 6.341 -1.847 0.30
-8.642 6.343 -1.856 0.37
-8.663 6.338 -1.859 0.35
-8.705 6.327 -1.864 0.29
-8.704 6.284 -1.859 0.32
-8.722 6.256 -1.859 0.35
-8.745 6.231 -1.860 0.35
-8.824 6.245 -1.873 0.32
-8.869 6.236 -1.879 0.32
-8.911 6.245 -1.886 0.37
-8.934 6.219 -1.887 0.30
-8.984 6.212 -1.894 0.38
-9.022 6.196 -1.898 0.37
-9.069 6.187 -1.904 0.24
-9.112 6.175 -1.910 0.07
-9.153 6.160 -1.914 0.11
-6.488 4.343 -1.318 0.20
-6.520 4.335 -1.322 0.39
-6.535 4.315 -1.323 0.05
-9.189 6.039 -1.907 0.08
-9.216 6.015 -1.909 0.20
-9.258 6.001 -1.914 0.11
-9.262 5.963 -1.911 0.20
-9.294 5.963 -1.916 0.11
-9.300 5.925 -1.913 0.18
-9.328 5.902 -1.915 0.11
-9.325 5.859 -1.911 0.20
-9.370 5.847 -1.916 0.11
-9.379 5.811 -1.914 0.21
-9.408 5.789 -1.917 0.11
-9.419 5.775 -1.917 0.19
-9.340 5.686 -1.896 0.27
-9.304 5.624 -1.884 0.12
-9.414 5.650 -1.904 0.09
-9.467 5.642 -1.912 0.18
-9.475 5.606 -1.910 0.19
-9.330 5.480 -1.875 0.19
-9.239 5.407 -1.854 0.29
-9.322 5.417 -1.868 0.12
-9.570 5.521 -1.917 0.19
-9.621 5.511 -1.924 0.11
-9.640 5.482 -1.925 0.18
-9.695 5.473 -1.933 0.11
-9.699 5.435 -1.930 0.18
-9.719 5.426 -1.932 0.10
-9.731 5.393 -1.931 0.19
-9.765 5.371 -1.935 0.10
-9.775 5.337 -1.934 0.18
-9.809 5.316 -1.937 0.21
-9.829 5.287 -1.938 0.10
-9.811 5.257 -1.932 0.19
-9.861 5.244 -1.939 0.11
-9.850 5.198 -1.934 0.19
-9.885 5.177 -1.938 0.11
-9.894 5.143 -1.936 0.18
-9.912 5.112 -1.936 0.11
-9.914 5.074 -1.934 0.20
-9.952 5.074 -1.940 0.11
-9.947 5.032 -1.935 0.18
-9.975 5.007 -1.938 0.23
-9.976 4.968 -1.935 0.18
-10.011 4.947 -1.939 0.23
-10.014 4.909 -1.936 0.19
-10.060 4.892 -1.943 0.24
-10.034 4.860 -1.936 0.20
-10.063 4.835 -1.939 0.24
-10.073 4.801 -1.938 0.22
-10.081 4.766 -1.936 0.20
-10.108 4.740 -1.939 0.24
-10.113 4.704 -1.936 0.19
-10.133 4.674 -1.938 0.06
-10.006 4.596 -1.910 0.13
-9.516 4.334 -1.808 0.24
-9.516 4.297 -1.805 0.06
-10.074 4.513 -1.915 0.15
-10.201 4.532 -1.938 0.11
-10.203 4.494 -1.936 0.19
-10.239 4.472 -1.940 0.11
-10.240 4.453 -1.939 0.20
-10.256 4.422 -1.939 0.11
-10.268 4.389 -1.939 0.20
-10.305 4.367 -1.944 0.11
-10.301 4.327 -1.940 0.20
-10.325 4.299 -1.942 0.11
-10.337 4.266 -1.942 0.20
-10.347 4.251 -1.943 0.11
-10.348 4.213 -1.940 0.20
-10.395 4.195 -1.947 0.11
-10.381 4.151 -1.942 0.20
-10.413 4.126 -1.945 0.11
-10.436 4.097 -1.947 0.18
-10.434 4.077 -1.946 0.23
-10.443 4.043 -1.945 0.20
-10.457 4.011 -1.945 0.22
-10.451 3.971 -1.942 0.20
-10.484 3.946 -1.946 0.12
-10.489 3.910 -1.944 0.20
-10.510 3.881 -1.946 0.11
-10.528 3.868 -1.948 0.21
-10.577 3.849 -1.955 0.17
-10.622 3.827 -1.962 0.26
-10.638 3.795 -1.963 0.25
-10.663 3.767 -1.965 0.11
-10.630 3.717 -1.956 0.19
-10.662 3.691 -1.960 0.11
-10.658 3.671 -1.959 0.20
-10.675 3.639 -1.960 0.11
-10.663 3.598 -1.955 0.19
-10.704 3.574 -1.961 0.10
-10.692 3.533 -1.956 0.17
-10.730 3.508 -1.962 0.05
-10.742 3.475 -1.962 0.18
-10.752 3.459 -1.963 0.05
-10.759 3.424 -1.962 0.17
-10.809 3.403 -1.969 0.05
-10.789 3.360 -1.964 0.17
-10.830 3.335 -1.969 0.05
-10.825 3.296 -1.967 0.16
-10.856 3.269 -1.971 0.19
-10.865 3.253 -1.971 0.18
-10.896 3.225 -1.975 0.18
-10.887 3.185 -1.972 0.09
-10.907 3.153 -1.973 0.09
-10.926 3.122 -1.975 0.09
-10.934 3.087 -1.975 0.09
-10.926 3.048 -1.972 0.09
-10.952 3.037 -1.976 0.09
-10.952 3.000 -1.974 0.08
-10.954 2.963 -1.972 0.09
-10.986 2.935 -1.977 0.08
-10.987 2.898 -1.975 0.08
-10.998 2.864 -1.976 0.08
-11.023 2.834 -1.979 0.08
-11.016 2.813 -1.976 0.08
-11.017 2.777 -1.975 0.16
-11.043 2.746 -1.978 0.04
-11.044 2.710 -1.977 0.08
-11.058 2.676 -1.978 0.04
-11.081 2.645 -1.981 0.08
-11.080 2.627 -1.980 0.04
-11.099 2.595 -1.982 0.07
-11.113 2.561 -1.983 0.04
-11.112 2.524 -1.981 0.07
-11.127 2.491 -1.983 0.04
-11.147 2.458 -1.985 0.07
-11.143 2.421 -1.983 0.04
-11.162 2.388 -1.985 0.08
-11.175 2.373 -1.987 0.04
-11.181 2.337 -1.986 0.07
-11.194 2.303 -1.987 0.16
-11.218 2.272 -1.991 0.16
-11.216 2.234 -1.989 0.16
-11.225 2.200 -1.989 0.04
-11.253 2.168 -1.993 0.08
-11.244 2.149 -1.991 0.08
-11.255 2.114 -1.992 0.08
-11.264 2.079 -1.992 0.08
-11.276 2.045 -1.993 0.09
-11.276 2.008 -1.992 0.08
-11.292 1.974 -1.994 0.08
-11.274 1.953 -1.990 0.08
-11.290 1.919 -1.992 0.08
-11.294 1.883 -1.991 0.08
-11.296 1.847 -1.991 0.08
-11.307 1.813 -1.992 0.09
-11.311 1.777 -1.991 0.09
-11.322 1.742 -1.992 0.08
-11.327 1.725 -1.993 0.08
-11.329 1.689 -1.992 0.08
-11.318 1.651 -1.989 0.08
-11.341 1.618 -1.992 0.08
-11.340 1.581 -1.991 0.08
-11.355 1.547 -1.993 0.08
-11.208 1.491 -1.965 0.08
-11.208 1.455 -1.964 0.04
-11.223 1.421 -1.966 0.08
-11.223 1.385 -1.965 0.04
-11.251 1.353 -1.969 0.08
-11.243 1.334 -1.968 0.08
-11.261 1.300 -1.970 0.08
-11.269 1.265 -1.971 0.08
-11.273 1.230 -1.971 0.08
-11.282 1.195 -1.972 0.08
-11.282 1.159 -1.971 0.08
-11.284 1.124 -1.971 0.16
-11.282 1.105 -1.970 0.16
-11.283 1.070 -1.970 0.16
-11.292 1.035 -1.971 0.16
-11.296 0.999 -1.971 0.16
-11.308 0.965 -1.973 0.16
-11.304 0.929 -1.971 0.16
-11.299 0.892 -1.970 0.16
-11.312 0.876 -1.972 0.18
-11.314 0.840 -1.972 0.17
-11.313 0.804 -1.971 0.18
-11.316 0.769 -1.971 0.04
-11.300 0.732 -1.968 0.16
-11.314 0.697 -1.970 0.18
-11.324 0.662 -1.972 0.17
-11.314 0.644 -1.969 0.17
-11.302 0.607 -1.967 0.17
-11.300 0.572 -1.966 0.18
-11.303 0.536 -1.967 0.04
-11.278 0.499 -1.962 0.16
-11.303 0.465 -1.966 0.19
-11.309 0.447 -1.967 0.17
-11.295 0.411 -1.964 0.18
-11.310 0.376 -1.967 0.04
-11.276 0.340 -1.960 0.16
-11.302 0.305 -1.965 0.05
-11.289 0.269 -1.962 0.17
-11.304 0.234 -1.965 0.05
-11.279 0.216 -1.960 0.16
-11.307 0.181 -1.965 0.05
-11.295 0.145 -1.963 0.17
-11.302 0.110 -1.964 0.19
-11.304 0.074 -1.964 0.10
-11.314 0.039 -1.966 0.09
-11.316 0.003 -1.967 0.09
-11.314 -0.015 -1.966 0.09
-11.306 -0.050 -1.965 0.09
-11.280 -0.086 -1.960 0.18
-11.306 -0.121 -1.965 0.04
-11.280 -0.156 -1.960 0.16
-11.303 -0.192 -1.964 0.05
-11.294 -0.228 -1.963 0.15
-11.313 -0.246 -1.967 0.19
-11.315 -0.281 -1.967 0.18
-11.292 -0.316 -1.963 0.17
-11.311 -0.352 -1.967 0.04
-11.282 -0.387 -1.962 0.16
-11.283 -0.422 -1.962 0.18
-11.299 -0.459 -1.965 0.04
-11.263 -0.475 -1.959 0.16
-11.277 -0.511 -1.962 0.05
-11.275 -0.546 -1.962 0.16
-11.277 -0.582 -1.962 0.18
-11.280 -0.618 -1.963 0.18
-11.281 -0.653 -1.964 0.18
-11.270 -0.688 -1.962 0.18
-11.272 -0.706 -1.963 0.00
-9.653 -0.639 -1.663 0.03
-9.625 -0.667 -1.658 0.15
-9.558 -0.693 -1.646 0.15
-9.127 -0.692 -1.567 0.07
-9.418 -0.743 -1.621 0.12
-9.073 -0.745 -1.558 0.15
-8.937 -0.749 -1.533 0.32
-8.799 -0.765 -1.508 0.04
-8.367 -0.756 -1.428 0.12
-8.588 -0.802 -1.469 0.17
-9.169 -0.884 -1.578 0.26
-9.206 -0.916 -1.585 0.29
-9.216 -0.946 -1.587 0.32
-9.203 -0.960 -1.585 0.32
-9.206 -0.989 -1.586 0.32
-11.209 -1.234 -1.959 0.10
-11.197 -1.269 -1.958 0.19
-11.205 -1.305 -1.960 0.11
-11.203 -1.341 -1.960 0.20
-11.200 -1.376 -1.961 0.11
-11.179 -1.391 -1.957 0.20
-11.200 -1.430 -1.962 0.11
-11.193 -1.465 -1.962 0.20
-11.231 -1.505 -1.969 0.11
-11.219 -1.540 -1.968 0.20
-11.235 -1.578 -1.972 0.11
-11.242 -1.615 -1.974 0.21
-11.247 -1.633 -1.976 0.22
-11.131 -1.653 -1.955 0.25
-11.077 -1.680 -1.946 0.20
-11.086 -1.717 -1.948 0.12
-11.045 -1.747 -1.942 0.21
-11.010 -1.777 -1.936 0.20
-11.023 -1.796 -1.939 0.24
-10.965 -1.822 -1.930 0.19
-10.965 -1.858 -1.931 0.24
-10.961 -1.893 -1.931 0.19
-10.924 -1.922 -1.925 0.12
-10.897 -1.952 -1.921 0.20
-10.900 -1.988 -1.923 0.11
-10.891 -2.004 -1.922 0.18
-10.871 -2.036 -1.919 0.23
-10.857 -2.069 -1.918 0.20
-10.833 -2.099 -1.915 0.23
-10.821 -2.132 -1.914 0.18
-10.824 -2.168 -1.915 0.24
-10.801 -2.199 -1.912 0.18
-10.800 -2.216 -1.913 0.23
-10.770 -2.246 -1.908 0.18
-10.767 -2.280 -1.909 0.24
-10.744 -2.311 -1.906 0.00
-9.714 -2.124 -1.713 0.14
-9.713 -2.155 -1.714 0.00
-9.960 -2.242 -1.762 0.09
-10.678 -2.420 -1.899 0.18
-10.683 -2.456 -1.901 0.24
-10.653 -2.485 -1.897 0.18
-10.658 -2.521 -1.899 0.23
-10.620 -2.547 -1.894 0.19
-10.617 -2.582 -1.895 0.23
-10.603 -2.614 -1.894 0.18
-10.593 -2.629 -1.892 0.24
-10.583 -2.662 -1.892 0.19
-10.577 -2.696 -1.892 0.24
-10.536 -2.721 -1.886 0.19
-10.539 -2.757 -1.888 0.24
-10.513 -2.785 -1.885 0.19
-10.508 -2.819 -1.886 0.24
-10.496 -2.834 -1.884 0.19
-10.494 -2.869 -1.886 0.25
-10.457 -2.894 -1.880 0.20
-10.457 -2.929 -1.882 0.24
-10.437 -2.959 -1.880 0.18
-10.431 -2.993 -1.881 0.23
-10.389 -2.999 -1.874 0.18
-10.400 -3.037 -1.878 0.24
-10.368 -3.063 -1.873 0.19
-10.362 -3.097 -1.874 0.12
-10.359 -3.132 -1.875 0.08
-6.777 -2.081 -1.186 0.14
-6.752 -2.097 -1.182 0.22
-6.797 -2.123 -1.191 0.00
-6.789 -2.143 -1.191 0.05
-10.224 -3.249 -1.858 0.18
-10.240 -3.290 -1.863 0.11
-10.205 -3.314 -1.858 0.21
-10.200 -3.348 -1.859 0.11
-10.177 -3.376 -1.857 0.20
-10.175 -3.393 -1.858 0.11
-10.140 -3.417 -1.853 0.20
-10.143 -3.453 -1.855 0.11
-10.106 -3.476 -1.850 0.19
-10.100 -3.510 -1.851 0.11
-10.065 -3.533 -1.847 0.20
-10.067 -3.569 -1.849 0.11
-10.037 -3.576 -1.844 0.20
-10.039 -3.613 -1.847 0.11
-9.996 -3.633 -1.841 0.20
-9.992 -3.667 -1.842 0.11
-9.971 -3.695 -1.840 0.20
-9.961 -3.727 -1.841 0.11
-9.915 -3.745 -1.834 0.20
-9.929 -3.768 -1.838 0.11
-9.891 -3.790 -1.833 0.19
-9.888 -3.824 -1.835 0.11
-9.853 -3.846 -1.830 0.20
-9.853 -3.882 -1.832 0.11
-9.806 -3.899 -1.826 0.20
-9.812 -3.937 -1.829 0.11
-9.782 -3.943 -1.824 0.20
-9.786 -3.980 -1.828 0.11
-9.756 -4.004 -1.824 0.20
-9.741 -4.034 -1.824 0.11
-9.703 -4.054 -1.819 0.20
-9.717 -4.096 -1.824 0.11
-9.680 -4.098 -1.818 0.19
-9.664 -4.127 -1.817 0.11
-9.654 -4.159 -1.818 0.18
-9.630 -4.184 -1.816 0.23
-9.612 -4.212 -1.815 0.18
-9.604 -4.245 -1.816 0.23
-9.574 -4.268 -1.812 0.18
-9.569 -4.283 -1.813 0.25
-9.556 -4.313 -1.813 0.21
-9.530 -4.338 -1.810 0.23
-9.503 -4.362 -1.808 0.19
-9.486 -4.390 -1.807 0.23
-9.467 -4.418 -1.806 0.18
-9.453 -4.447 -1.806 0.23
-9.451 -4.465 -1.807 0.19
-9.414 -4.483 -1.802 0.23
-9.382 -4.504 -1.799 0.18
-9.386 -4.542 -1.802 0.23
-9.345 -4.559 -1.797 0.18
-9.350 -4.598 -1.801 0.23
-9.325 -4.622 -1.799 0.19
-9.312 -4.634 -1.798 0.23
-9.301 -4.665 -1.798 0.19
-9.281 -4.692 -1.797 0.23
-9.252 -4.714 -1.794 0.18
-9.236 -4.742 -1.794 0.24
-9.209 -4.764 -1.791 0.18
-9.204 -4.799 -1.794 0.24
-9.172 -4.800 -1.788 0.18
-9.166 -4.834 -1.790 0.23
-9.140 -4.857 -1.788 0.18
-9.120 -4.883 -1.787 0.24
-9.104 -4.912 -1.787 0.19
-9.082 -4.936 -1.786 0.25
-9.059 -4.961 -1.784 0.21
-9.057 -4.978 -1.785 0.12
-9.019 -4.994 -1.780 0.21
-8.993 -5.017 -1.778 0.18
-9.002 -5.060 -1.784 0.26
-8.963 -5.074 -1.779 0.19
-8.955 -5.107 -1.780 0.25
-8.932 -5.113 -1.777 0.21
-8.917 -5.142 -1.778 0.20
-8.901 -5.170 -1.778 0.25
-8.875 -5.192 -1.775 0.19
-8.855 -5.217 -1.775 0.24
-8.832 -5.241 -1.773 0.19
-8.820 -5.272 -1.774 0.23
-8.793 -5.275 -1.770 0.19
-8.778 -5.303 -1.771 0.25
-8.763 -5.332 -1.771 0.20
-8.742 -5.356 -1.770 0.25
-8.701 -5.369 -1.765 0.22
-8.679 -5.394 -1.764 0.18
-8.666 -5.423 -1.765 0.26
-8.642 -5.427 -1.761 0.22
-8.635 -5.461 -1.763 0.18
-8.611 -5.483 -1.762 0.26
-8.571 -5.496 -1.757 0.22
-8.563 -5.529 -1.759 0.18
-8.546 -5.556 -1.759 0.26
-8.502 -5.565 -1.753 0.22
-8.508 -5.589 -1.757 0.18
-8.486 -5.612 -1.755 0.26
-8.451 -5.628 -1.752 0.23
-8.435 -5.655 -1.752 0.18
-8.418 -5.682 -1.752 0.26
-8.390 -5.702 -1.750 0.24
-8.393 -5.742 -1.755 0.24
-8.360 -5.739 -1.749 0.28
-8.327 -5.755 -1.746 0.33
-8.315 -5.786 -1.747 0.30
-8.273 -5.795 -1.742 0.30
-8.258 -5.823 -1.743 0.37
-8.243 -5.851 -1.743 0.26
-8.181 -5.846 -1.734 0.38
-8.186 -5.870 -1.737 0.20
-8.203 -5.920 -1.745 0.27
-8.151 -5.922 -1.737 0.23
-8.137 -5.951 -1.738 0.19
-8.134 -5.988 -1.742 0.27
-8.087 -5.993 -1.735 0.23
-8.079 -6.007 -1.736 0.18
-8.071 -6.040 -1.738 0.26
-8.025 -6.045 -1.732 0.23
-8.000 -6.066 -1.731 0.19
-8.001 -6.106 -1.735 0.26
-7.960 -6.115 -1.730 0.23
-7.933 -6.134 -1.729 0.18
-7.942 -6.161 -1.733 0.26
-7.899 -6.168 -1.727 0.22
-7.872 -6.186 -1.726 0.18
-7.870 -6.224 -1.730 0.26
-7.830 -6.233 -1.725 0.22
-7.795 -6.246 -1.721 0.18
-7.794 -6.285 -1.726 0.26
-7.763 -6.280 -1.721 0.22
-7.729 -6.293 -1.717 0.18
-7.731 -6.335 -1.722 0.26
-7.697 -6.348 -1.719 0.23
-7.668 -6.364 -1.717 0.18
-7.663 -6.401 -1.721 0.26
-7.626 -6.390 -1.714 0.19
-7.618 -6.424 -1.717 0.25
-7.575 -6.429 -1.711 0.23
-7.540 -6.440 -1.708 0.19
-7.537 -6.479 -1.712 0.27
-7.496 -6.485 -1.707 0.25
-7.477 -6.510 -1.707 0.20
-7.480 -6.533 -1.711 0.25
-7.439 -6.538 -1.706 0.23
-7.411 -6.555 -1.704 0.19
-7.398 -6.585 -1.706 0.27
-7.383 -6.613 -1.707 0.22
-7.345 -6.621 -1.703 0.18
-7.327 -6.646 -1.703 0.27
-7.298 -6.663 -1.702 0.22
-7.260 -6.649 -1.695 0.22
-7.238 -6.671 -1.694 0.24
-7.237 -6.712 -1.699 0.32
-7.209 -6.728 -1.698 0.24
-7.182 -6.745 -1.696 0.18
-7.174 -6.780 -1.699 0.26
-7.154 -6.783 -1.697 0.23
-7.132 -6.804 -1.697 0.18
-7.126 -6.841 -1.701 0.27
-7.089 -6.849 -1.697 0.22
-7.063 -6.867 -1.696 0.18
-7.067 -6.914 -1.702 0.26
-7.021 -6.913 -1.696 0.23
-7.014 -6.928 -1.697 0.18
-7.005 -6.962 -1.701 0.26
-6.976 -6.977 -1.699 0.23
-6.945 -6.989 -1.696 0.20
-6.943 -7.032 -1.702 0.27
-6.898 -7.030 -1.695 0.23
-6.883 -7.059 -1.697 0.19
-6.889 -7.088 -1.702 0.26
-6.847 -7.088 -1.697 0.24
-6.819 -7.104 -1.695 0.18
-6.815 -7.145 -1.700 0.27
-6.777 -7.150 -1.696 0.23
-6.753 -7.169 -1.695 0.18
-6.756 -7.196 -1.699 0.26
-6.716 -7.198 -1.695 0.23
-6.692 -7.218 -1.694 0.19
-6.686 -7.256 -1.699 0.27
-6.646 -7.258 -1.694 0.23
-6.609 -7.265 -1.690 0.25
-6.592 -7.291 -1.692 0.20
-6.595 -7.318 -1.696 0.27
-6.553 -7.318 -1.691 0.25
-6.530 -7.338 -1.691 0.26
-6.494 -7.344 -1.687 0.21
-6.484 -7.379 -1.691 0.28
-6.458 -7.397 -1.690 0.25
-6.422 -7.402 -1.686 0.19
-6.421 -7.424 -1.689 0.27
-6.386 -7.431 -1.686 0.24
-6.354 -7.440 -1.683 0.16
-6.347 -7.480 -1.688 0.28
-6.311 -7.485 -1.685 0.25
-6.282 -7.498 -1.683 0.26
-6.251 -7.509 -1.681 0.16
-6.257 -7.540 -1.686 0.28
-6.210 -7.532 -1.679 0.25
-6.180 -7.544 -1.678 0.20
-6.169 -7.579 -1.681 0.27
-6.130 -7.580 -1.677 0.22
-6.113 -7.607 -1.679 0.12
-5.466 -6.850 -1.495 0.16
-5.450 -6.852 -1.493 0.12
-6.027 -7.622 -1.671 0.18
-6.036 -7.683 -1.681 0.17
-6.053 -7.754 -1.693 0.27
-6.034 -7.779 -1.695 0.21
-5.978 -7.758 -1.685 0.31
-6.017 -7.834 -1.701 0.29
-5.996 -7.858 -1.702 0.26
-5.958 -7.859 -1.698 0.23
-5.925 -7.867 -1.695 0.31
-5.860 -7.832 -1.683 0.17
-5.832 -7.846 -1.682 0.13
-5.750 -7.787 -1.664 0.00
-5.344 -7.263 -1.542 0.03
-5.300 -7.251 -1.535 0.07
-5.054 -6.963 -1.465 0.15
-4.921 -6.826 -1.430 0.05
-4.941 -6.899 -1.444 0.12
-5.602 -7.867 -1.660 0.16
-5.563 -7.864 -1.655 0.16
-5.492 -7.791 -1.637 0.00
-5.446 -7.778 -1.630 0.03
-4.755 -6.842 -1.415 0.14
-4.741 -6.867 -1.417 0.00
-4.732 -6.901 -1.422 0.00
-4.826 -7.085 -1.460 0.04
-4.433 -6.577 -1.341 0.15
-4.414 -6.594 -1.342 0.18
-4.398 -6.615 -1.343 0.12
-5.275 -7.978 -1.643 0.21
-4.324 -6.593 -1.332 0.23
-4.329 -6.646 -1.341 0.30
-4.315 -6.669 -1.343 0.30
-4.309 -6.684 -1.345 0.26
-5.146 -8.083 -1.646 0.34
-5.097 -8.062 -1.638 0.15
-5.075 -8.083 -1.639 0.06
-4.110 -6.601 -1.312 0.15
-5.043 -8.117 -1.641 0.11
-5.029 -8.151 -1.645 0.14
-4.992 -8.148 -1.641 0.16
-4.362 -7.178 -1.428 0.12
-4.330 -7.175 -1.424 0.15
-4.185 -6.986 -1.380 0.04
-4.885 -8.204 -1.640 0.12
-4.295 -7.246 -1.432 0.23
-3.953 -6.719 -1.316 0.21
-3.856 -6.603 -1.288 0.26
-3.689 -6.411 -1.242 0.37
-3.752 -6.567 -1.273 0.24
-4.167 -7.341 -1.435 0.05
-3.996 -7.119 -1.384 0.28
-3.923 -7.042 -1.365 0.00
-4.163 -7.525 -1.465 0.00
-3.658 -6.667 -1.281 0.00
-3.543 -6.508 -1.245 0.00
-3.527 -6.502 -1.242 0.00
-3.504 -6.509 -1.241 0.04
-3.476 -6.506 -1.239 0.00
-3.448 -6.503 -1.236 0.00
-3.408 -6.525 -1.236 0.21
-3.398 -6.556 -1.240 0.19
-3.387 -6.560 -1.240 0.16
-3.353 -6.546 -1.235 0.33
-3.326 -6.543 -1.232 0.22
-4.268 -8.446 -1.624 0.05
-4.235 -8.446 -1.621 0.00
-3.506 -7.057 -1.332 0.04
-3.481 -7.063 -1.331 0.18
-3.469 -7.067 -1.330 0.32
-3.445 -7.074 -1.329 0.25
-3.421 -7.080 -1.328 0.22
-3.380 -7.053 -1.321 0.06
-3.250 -6.838 -1.275 0.00
-3.083 -6.541 -1.212 0.05
-3.010 -6.467 -1.193 0.29
-3.005 -6.510 -1.200 0.13
-2.993 -6.537 -1.204 0.26
-3.066 -6.751 -1.245 0.16
-3.225 -7.158 -1.326 0.33
-3.200 -7.162 -1.325 0.20
-3.179 -7.174 -1.325 0.26
-3.169 -7.183 -1.326 0.47
-3.762 -8.587 -1.608 0.38
-3.730 -8.586 -1.605 0.36
-3.722 -8.643 -1.614 0.05
-3.030 -7.110 -1.304 0.07
-2.966 -7.022 -1.284 0.13
-2.780 -6.614 -1.201 0.18
-2.737 -6.570 -1.191 0.23
-2.699 -6.537 -1.182 0.51
-2.690 -6.572 -1.188 0.58
-3.510 -8.632 -1.597 0.16
-3.500 -8.685 -1.606 0.31
-3.476 -8.705 -1.607 0.20
-3.457 -8.697 -1.605 0.25
-3.435 -8.721 -1.607 0.34
-3.382 -8.666 -1.594 0.30
-3.373 -8.724 -1.604 0.00
-3.298 -8.612 -1.579 0.00
-0.733 -1.989 -0.267 0.00
-0.713 -1.954 -0.260 0.00
-0.707 -1.948 -0.258 0.00
-0.698 -1.943 -0.257 0.00
-0.698 -1.960 -0.260 0.00
-0.681 -1.935 -0.254 0.00
-0.690 -1.977 -0.262 0.00
-0.674 -1.952 -0.257 0.00
-0.666 -1.950 -0.256 0.00
-0.666 -1.959 -0.258 0.00
-0.658 -1.955 -0.256 0.00
-0.656 -1.968 -0.259 0.00
-0.647 -1.963 -0.257 0.00
-0.647 -1.984 -0.261 0.00
-2.860 -8.808 -1.587 0.20
-2.831 -8.815 -1.586 0.30
-2.802 -8.819 -1.585 0.30
-2.776 -8.833 -1.586 0.32
-2.751 -8.849 -1.588 0.38
-2.739 -8.861 -1.589 0.33
-2.715 -8.881 -1.591 0.31
-2.687 -8.891 -1.592 0.26
-2.660 -8.901 -1.592 0.33
-2.624 -8.882 -1.587 0.27
-2.597 -8.893 -1.587 0.29
-2.575 -8.924 -1.592 0.25
-2.554 -8.904 -1.587 0.28
-2.526 -8.912 -1.587 0.30
-2.499 -8.923 -1.588 0.27
-2.465 -8.908 -1.583 0.34
-2.437 -8.918 -1.584 0.24
-2.419 -8.962 -1.591 0.16
-2.386 -8.952 -1.587 0.20
-2.381 -8.988 -1.594 0.17
-2.362 -9.032 -1.601 0.27
-2.345 -9.083 -1.609 0.20
-2.304 -9.041 -1.599 0.27
-2.283 -9.078 -1.605 0.20
-2.267 -9.133 -1.614 0.30
-2.245 -9.106 -1.609 0.25
-2.218 -9.119 -1.610 0.25
-2.190 -9.128 -1.610 0.25
-2.163 -9.144 -1.612 0.26
-2.134 -9.151 -1.612 0.28
-2.103 -9.148 -1.610 0.29
-2.072 -9.143 -1.608 0.28
-2.059 -9.154 -1.609 0.29
-2.029 -9.153 -1.608 0.28
-2.000 -9.159 -1.608 0.29
-1.976 -9.185 -1.611 0.33
-1.940 -9.158 -1.605 0.29
-1.915 -9.185 -1.609 0.31
-1.886 -9.189 -1.609 0.29
-1.870 -9.183 -1.607 0.33
-1.841 -9.188 -1.607 0.27
-1.809 -9.179 -1.604 0.37
-1.725 -8.903 -1.551 0.22
-1.641 -8.620 -1.497 0.15
-1.650 -8.815 -1.533 0.06
-1.586 -8.627 -1.496 0.17
-1.581 -8.677 -1.505 0.20
-1.544 -8.624 -1.494 0.19
-1.511 -8.596 -1.488 0.12
-1.465 -8.492 -1.468 0.09
-1.437 -8.491 -1.467 0.18
-1.408 -8.480 -1.464 0.14
-1.399 -8.513 -1.470 0.29
-1.372 -8.512 -1.469 0.23
-1.348 -8.534 -1.472 0.27
-1.322 -8.546 -1.473 0.29
-1.299 -8.573 -1.478 0.33
-1.271 -8.569 -1.476 0.26
-1.264 -8.707 -1.501 0.28
-1.257 -8.754 -1.510 0.21
-1.238 -8.820 -1.521 0.15
-1.196 -8.721 -1.502 0.19
-1.185 -8.844 -1.524 0.20
-1.143 -8.746 -1.505 0.16
-1.163 -9.108 -1.572 0.23
-1.135 -9.122 -1.574 0.43
-1.125 -9.157 -1.580 0.35
-1.097 -9.168 -1.582 0.31
-1.067 -9.162 -1.580 0.29
-1.040 -9.177 -1.582 0.32
-1.011 -9.182 -1.582 0.37
-0.982 -9.177 -1.581 0.34
-0.951 -9.161 -1.577 0.29
-0.937 -9.164 -1.578 0.36
-0.906 -9.149 -1.574 0.33
-0.876 -9.138 -1.572 0.38
-0.845 -9.114 -1.567 0.30
-0.816 -9.114 -1.566 0.35
-0.786 -9.109 -1.565 0.33
-0.760 -9.131 -1.569 0.33
-0.745 -9.134 -1.569 0.30
-0.715 -9.119 -1.566 0.35
-0.685 -9.099 -1.562 0.30
-0.655 -9.086 -1.559 0.31
-0.626 -9.082 -1.558 0.31
-0.598 -9.096 -1.560 0.28
-0.582 -9.069 -1.555 0.37
-0.553 -9.061 -1.553 0.34
-0.525 -9.065 -1.553 0.34
-0.495 -9.051 -1.550 0.28
-0.464 -8.999 -1.541 0.32
-0.435 -8.983 -1.537 0.40
-0.406 -8.963 -1.533 0.30
-0.392 -8.967 -1.534 0.30
-0.363 -8.945 -1.530 0.25
-0.334 -8.944 -1.529 0.17
-0.306 -8.949 -1.530 0.29
-0.277 -8.926 -1.526 0.25
-0.249 -8.919 -1.524 0.20
-0.222 -8.947 -1.529 0.14
-0.207 -8.926 -1.525 0.21
-0.141 -7.257 -1.217 0.23
-0.117 -7.207 -1.207 0.23
-0.087 -6.761 -1.125 0.13
-0.065 -6.729 -1.119 0.23
-0.044 -6.751 -1.123 0.17
-0.034 -6.749 -1.123 0.09
-0.025 -8.921 -1.524 0.16
0.003 -8.919 -1.524 0.22
0.031 -8.891 -1.518 0.21
0.059 -8.893 -1.519 0.05
0.087 -8.887 -1.518 0.18
0.115 -8.906 -1.521 0.05
0.134 -7.330 -1.230 0.26
0.156 -7.291 -1.223 0.23
0.170 -6.857 -1.143 0.20
0.189 -6.774 -1.128 0.31
0.209 -6.726 -1.119 0.28
0.232 -6.785 -1.130 0.28
0.243 -6.792 -1.131 0.57
0.262 -6.717 -1.118 0.28
0.284 -6.738 -1.122 0.27
0.305 -6.739 -1.122 0.10
0.326 -6.728 -1.120 0.15
0.372 -6.796 -1.133 0.25
0.383 -6.807 -1.135 0.52
0.415 -6.993 -1.170 0.43
0.442 -7.076 -1.186 0.25
0.452 -6.882 -1.150 0.36
0.470 -6.824 -1.139 0.14
0.486 -6.750 -1.126 0.29
0.497 -6.753 -1.127 0.31
0.520 -6.767 -1.130 0.10
0.561 -7.024 -1.178 0.12
0.567 -6.820 -1.140 0.20
0.589 -6.824 -1.141 0.43
0.608 -6.795 -1.136 0.23
0.626 -6.762 -1.130 0.40
0.633 -6.714 -1.122 0.32
0.657 -6.743 -1.127 0.37
0.665 -6.608 -1.103 0.37
0.705 -6.798 -1.138 0.21
0.924 -8.711 -1.494 0.26
0.953 -8.731 -1.498 0.31
0.982 -8.742 -1.501 0.34
0.992 -8.707 -1.495 0.23
0.998 -8.510 -1.459 0.00
1.017 -8.445 -1.447 0.00
0.975 -7.869 -1.341 0.10
0.950 -7.468 -1.267 0.24
0.987 -7.568 -1.286 0.20
0.894 -6.587 -1.104 0.75
0.906 -6.520 -1.092 0.96
0.935 -6.577 -1.103 0.64
0.941 -6.471 -1.084 0.35
0.990 -6.667 -1.121 0.22
1.011 -6.663 -1.121 0.14
1.021 -6.660 -1.120 0.16
1.046 -6.688 -1.126 0.14
1.351 -8.503 -1.466 0.25
1.390 -8.577 -1.481 0.16
1.317 -7.805 -1.338 0.77
1.332 -7.739 -1.327 0.91
1.347 -7.758 -1.331 0.88
1.364 -7.709 -1.322 0.70
1.220 -6.754 -1.144 0.34
1.212 -6.586 -1.113 0.20
1.233 -6.588 -1.114 0.12
1.244 -6.530 -1.104 0.00
1.270 -6.501 -1.099 0.26
1.406 -7.091 -1.211 0.18
1.468 -7.283 -1.248 0.16
1.498 -7.317 -1.256 0.23
1.569 -7.548 -1.300 0.13
1.769 -8.388 -1.460 0.39
1.432 -6.662 -1.135 0.12
1.443 -6.662 -1.135 0.34
1.469 -6.682 -1.140 0.11
1.499 -6.720 -1.148 0.27
1.527 -6.742 -1.153 0.52
1.548 -6.737 -1.153 0.25
1.934 -8.327 -1.455 0.08
1.540 -6.559 -1.120 0.26
1.541 -6.470 -1.104 0.99
1.572 -6.509 -1.113 0.70
1.599 -6.531 -1.118 0.37
2.067 -8.362 -1.467 0.27
2.092 -8.350 -1.466 0.31
2.118 -8.341 -1.466 0.30
2.133 -8.348 -1.468 0.28
2.156 -8.327 -1.465 0.29
2.179 -8.307 -1.462 0.27
2.208 -8.314 -1.465 0.15
2.079 -7.624 -1.336 0.07
1.799 -6.462 -1.115 0.06
1.820 -6.461 -1.116 0.08
1.855 -6.508 -1.126 0.14
1.871 -6.487 -1.123 0.20
1.893 -6.487 -1.124 0.16
1.917 -6.490 -1.126 0.08
1.933 -6.508 -1.130 0.09
1.952 -6.498 -1.129 0.08
1.978 -6.511 -1.133 0.00
1.987 -6.465 -1.125 0.07
2.033 -6.471 -1.129 0.30
2.058 -6.480 -1.132 0.36
2.077 -6.503 -1.137 0.32
2.092 -6.481 -1.134 0.44
2.115 -6.482 -1.135 0.36
2.132 -6.466 -1.134 0.49
2.156 -6.469 -1.135 0.43
2.176 -6.462 -1.135 0.42
2.197 -6.457 -1.136 0.39
2.211 -6.464 -1.138 0.22
2.230 -6.456 -1.138 0.13
2.799 -8.038 -1.448 0.14
2.276 -6.454 -1.140 0.25
2.837 -7.985 -1.441 0.12
2.319 -6.449 -1.142 0.38
2.329 -6.444 -1.142 0.27
2.344 -6.422 -1.139 0.20
2.360 -6.403 -1.136 0.00
2.973 -8.007 -1.454 0.12
3.014 -8.042 -1.462 0.26
3.022 -7.986 -1.453 0.20
3.066 -8.027 -1.463 0.36
3.078 -8.020 -1.463 0.34
3.112 -8.032 -1.467 0.30
3.146 -8.046 -1.472 0.33
3.155 -7.996 -1.464 0.30
3.180 -7.984 -1.464 0.28
3.202 -7.967 -1.462 0.36
2.678 -6.560 -1.185 0.86
2.666 -6.472 -1.169 0.96
2.707 -6.514 -1.179 0.78
2.710 -6.464 -1.171 0.50
3.338 -7.909 -1.462 0.30
3.352 -7.871 -1.456 0.33
3.374 -7.855 -1.455 0.36
3.402 -7.886 -1.462 0.36
3.416 -7.850 -1.457 0.34
3.443 -7.844 -1.458 0.35
3.471 -7.843 -1.460 0.30
3.493 -7.824 -1.459 0.34
3.519 -7.817 -1.460 0.33
3.535 -7.820 -1.461 0.30
3.546 -7.779 -1.455 0.32
3.571 -7.769 -1.456 0.32
3.588 -7.740 -1.452 0.31
3.610 -7.725 -1.451 0.30
3.640 -7.726 -1.454 0.31
3.672 -7.731 -1.457 0.34
3.673 -7.702 -1.452 0.26
3.689 -7.673 -1.449 0.32
3.724 -7.684 -1.453 0.42
3.745 -7.665 -1.452 0.36
3.765 -7.645 -1.450 0.33
3.787 -7.629 -1.449 0.27
3.803 -7.602 -1.446 0.30
3.804 -7.574 -1.442 0.30
